ply
format ascii 1.0
element vertex 1027
property float x
property float y
property float z
property uchar red
property uchar green
property uchar blue
element face 0
property list uchar int vertex_indices
end_header
-0.24908327 -0.6198744 -0.49951452 109 106 82
-0.27087632 -0.6193285 -0.48043057 145 140 125
-0.2915498 -0.61710155 -0.46198055 175 170 159
-0.31075937 -0.61580354 -0.44499335 178 173 162
-0.32869864 -0.61562353 -0.42933875 179 174 165
-0.3455076 -0.61787623 -0.41516152 183 177 170
-0.3615146 -0.6208198 -0.40182245 190 182 176
-0.3769079 -0.6320027 -0.39068833 195 189 180
0.75574446 -0.62557375 -1.4676102 160 152 144
0.63172454 -0.6273175 -1.3533645 176 168 161
0.5208624 -0.6266453 -1.2506629 201 193 185
0.42021444 -0.6229556 -1.1566284 203 197 190
0.011279031 -0.3678639 -0.71253437 100 194 99
-0.020347366 -0.3749821 -0.6851246 44 146 45
-0.062819205 -0.36895144 -0.6442877 108 192 103
-0.09745058 -0.36597985 -0.61149216 107 189 100
-0.12712154 -0.3645361 -0.5836788 105 186 99
-0.15323429 -0.36396226 -0.5593809 106 187 102
-0.17638431 -0.3642604 -0.53804827 92 175 89
-0.19915539 -0.36187422 -0.5163727 109 192 105
-0.22205345 -0.35527182 -0.4934903 76 152 71
-0.22293633 -0.39143258 -0.50201577 71 86 67
-0.17432298 -0.55697757 -0.5897421 66 75 64
-0.19410132 -0.57337344 -0.57568645 64 69 57
-0.20681559 -0.6123928 -0.57400846 70 68 54
-0.22995538 -0.6181785 -0.554103 103 96 73
-0.25298312 -0.6192254 -0.5330769 115 110 87
-0.2747291 -0.61960095 -0.5130628 125 122 101
-0.29531246 -0.61884266 -0.49383092 94 91 79
-0.3147879 -0.6164251 -0.47519505 182 177 168
-0.33291462 -0.6150069 -0.45806468 185 179 170
-0.3498082 -0.6167263 -0.44288528 189 181 175
-0.3658691 -0.61850154 -0.42849043 193 185 178
-0.38122964 -0.623934 -0.41568807 193 187 178
0.65009046 -0.6280753 -1.4602842 178 168 161
0.5344867 -0.6271841 -1.3465909 196 188 182
0.43419868 -0.62612855 -1.2478709 200 192 186
0.343424 -0.62261313 -1.1577066 217 209 201
-0.015024262 -0.377312 -0.72854286 109 191 105
-0.05796045 -0.37202743 -0.6847509 61 149 66
-0.09448925 -0.36816436 -0.64769405 103 186 99
-0.12539458 -0.36620322 -0.616755 106 186 102
-0.1516719 -0.36626256 -0.5909947 75 156 70
-0.17660977 -0.36473152 -0.5660459 106 188 103
-0.19933811 -0.3630342 -0.5432122 107 190 103
-0.22197983 -0.35755923 -0.5192697 99 182 97
-0.23113894 -0.3767191 -0.5163386 57 107 41
-0.18201974 -0.54415506 -0.617434 78 84 75
-0.20272431 -0.5569613 -0.60116863 75 80 68
-0.20954162 -0.6147462 -0.6127399 71 70 57
-0.23382024 -0.6174018 -0.5897608 108 102 81
-0.25719932 -0.6174755 -0.5668482 118 112 93
-0.27903974 -0.61775315 -0.54550964 125 121 101
-0.299553 -0.6178728 -0.52542317 178 173 164
-0.31883594 -0.61792886 -0.5065236 183 177 168
-0.33717173 -0.61507267 -0.48763293 65 61 55
-0.35422245 -0.6143722 -0.47068417 190 183 174
-0.37027955 -0.6158277 -0.45539147 197 190 179
-0.38560942 -0.61969894 -0.44157553 198 190 182
-0.4007242 -0.63103086 -0.43032807 202 195 184
0.65517837 -0.6210988 -1.5560707 162 154 147
0.54958063 -0.6281649 -1.4489707 191 181 175
0.4461767 -0.62751466 -1.3412508 207 199 192
0.357608 -0.62801105 -1.2493813 220 211 203
0.2764426 -0.6257485 -1.1641699 201 196 189
-0.047077294 -0.38080356 -0.73586094 107 190 103
-0.08946856 -0.37251338 -0.6886851 66 149 65
-0.12132576 -0.3706799 -0.6548845 107 188 102
-0.14888582 -0.37023228 -0.6260711 66 143 59
-0.17385982 -0.3697721 -0.59994084 32 122 22
-0.1978105 -0.36719856 -0.57407993 108 193 107
-0.2217855 -0.36018732 -0.54652613 108 190 107
-0.23561986 -0.3700547 -0.5358552 63 108 44
-0.15282752 -0.62503064 -0.7177279 125 123 104
-0.1843921 -0.6195658 -0.68286675 120 118 100
-0.21120834 -0.6211811 -0.6556016 117 112 94
-0.2380338 -0.61555564 -0.6256059 133 124 108
-0.2614228 -0.6160592 -0.6014852 130 124 107
-0.28336468 -0.6162668 -0.5787574 132 128 111
-0.3042025 -0.6142823 -0.5563533 168 165 155
-0.32343066 -0.6146316 -0.5364994 183 178 169
-0.34153455 -0.61499983 -0.517821 189 183 174
-0.3586308 -0.6146642 -0.49992543 191 185 178
-0.37475264 -0.6153301 -0.48341912 198 191 186
-0.39005044 -0.61658657 -0.4679911 197 191 180
-0.4049455 -0.62358457 -0.45513946 201 193 185
1.1252375 -0.50330454 -0.43566272 114 103 90
1.098636 -0.5471368 -0.40981618 27 9 4
1.0734288 -0.5925803 -0.3835436 20 6 2
0.99692154 -0.61895704 -0.35462007 89 85 83
0.87791806 -0.62386286 -0.32608634 89 86 82
0.76785034 -0.62624085 -0.30067885 88 85 83
0.6792503 -0.6333183 -0.27787477 46 51 48
0.5940877 -0.6371804 -0.25729507 12 18 11
0.34525037 -0.531764 -0.25032642 187 186 185
0.24605139 -0.50502586 -0.24058478 203 203 200
0.049875118 -0.39590257 -0.24694254 86 189 89
0.022038003 -0.40189838 -0.23805936 81 182 81
0.0038679275 -0.41488594 -0.22812738 88 180 88
-0.00076539477 -0.44072035 -0.21533455 38 93 20
0.08178463 -0.56101644 -0.17877638 205 203 197
0.061974525 -0.5817331 -0.16496098 207 206 197
0.03974129 -0.5996146 -0.15190165 200 198 192
0.013223753 -0.61129993 -0.14071819 197 193 186
-0.017780876 -0.6147924 -0.1322754 198 194 189
-0.04791111 -0.61673814 -0.124730445 193 186 182
-0.07578791 -0.6194913 -0.11731567 187 181 174
-0.10485136 -0.616795 -0.112121165 177 169 161
-0.13255966 -0.6128311 -0.10780358 158 149 139
-0.15653339 -0.61339104 -0.10225048 128 115 104
-0.18041465 -0.61058474 -0.098251306 89 70 59
-0.20572123 -0.59890807 -0.097978055 69 45 26
1.1059492 -0.5380807 -0.48102602 38 15 2
1.0790099 -0.5834251 -0.455127 47 23 6
1.0348576 -0.6232859 -0.4271602 141 137 131
0.9065486 -0.62674785 -0.39311373 169 163 162
0.7958308 -0.63102293 -0.36319384 153 148 146
0.69855416 -0.63567597 -0.33652934 138 137 136
0.17563365 -0.39021364 -0.30686024 95 197 102
0.08414869 -0.3628282 -0.29513118 105 204 106
0.04289477 -0.36148512 -0.28521678 104 202 110
0.0017663053 -0.35714677 -0.27659303 100 200 109
-0.031645622 -0.35566327 -0.26872957 96 192 100
-0.059217665 -0.35663158 -0.26131913 90 181 95
-0.08546059 -0.35671636 -0.25461757 80 167 83
-0.11094089 -0.35536832 -0.24871188 81 165 82
-0.12940605 -0.35968968 -0.24220552 81 164 81
0.03284069 -0.5899738 -0.18663922 178 182 168
0.014904669 -0.6132264 -0.17231129 195 193 187
-0.017490191 -0.61546826 -0.16314057 196 194 187
-0.046925068 -0.6192582 -0.15407112 191 187 180
-0.076317124 -0.62013024 -0.14623882 184 178 171
-0.10473171 -0.61936843 -0.13934143 172 164 156
-0.13257712 -0.6159158 -0.13371947 169 161 153
-0.15821782 -0.6132788 -0.12831473 148 139 129
-0.18087268 -0.6143243 -0.12212085 115 102 91
-0.20592009 -0.6042972 -0.119972534 74 49 32
-0.22446445 -0.6101316 -0.11281016 69 47 28
1.1004424 -0.52483267 -0.5517188 155 145 135
1.0788168 -0.5720467 -0.5273612 46 22 5
1.0688713 -0.6253788 -0.5040168 156 148 146
0.93148106 -0.6274861 -0.46365395 184 179 178
0.812117 -0.62977546 -0.4284108 161 155 153
0.7086103 -0.6328552 -0.39742935 185 181 178
0.6123039 -0.6334607 -0.3694709 97 145 97
0.10577108 -0.3729743 -0.32367906 23 125 11
0.05655124 -0.36788347 -0.3114641 84 186 83
0.01690769 -0.36590758 -0.30080983 92 188 94
-0.018477207 -0.3642091 -0.29127508 85 179 89
-0.0475593 -0.36513674 -0.2825463 22 70 28
-0.073175974 -0.3670838 -0.27442375 87 178 88
-0.09687498 -0.36901242 -0.26686034 48 137 42
-0.1262756 -0.36242643 -0.26092535 62 155 57
-0.15311725 -0.3555772 -0.25582817 88 175 91
-0.16816543 -0.36148646 -0.24922657 45 90 26
-0.016459119 -0.6172644 -0.19467483 184 183 176
-0.048292153 -0.61792475 -0.18525675 186 182 177
-0.07722171 -0.62012994 -0.17608128 177 173 165
-0.105719045 -0.6198005 -0.16800366 168 161 153
-0.13273536 -0.6187959 -0.16061166 169 162 153
-0.1587373 -0.61613226 -0.15414883 168 158 150
-0.18271537 -0.6144161 -0.14790478 141 130 121
-0.20863989 -0.60209304 -0.14517376 75 51 33
-0.22809486 -0.6050229 -0.13844767 72 47 31
1.0828956 -0.56194234 -0.60148287 46 21 5
1.0637165 -0.6121195 -0.5778907 45 25 5
0.9600457 -0.6292003 -0.5385139 173 166 165
0.8310243 -0.62934697 -0.49683046 190 185 182
0.72031116 -0.6305891 -0.46067482 195 189 184
0.6284935 -0.635181 -0.42945448 189 184 179
0.10976171 -0.37193626 -0.35337463 24 129 19
0.06880888 -0.37310037 -0.33975625 83 181 87
0.023736002 -0.36830708 -0.32687464 112 208 116
-0.011870374 -0.36727345 -0.3157437 97 195 103
-0.04392544 -0.36642197 -0.30569553 82 174 87
-0.071752444 -0.36687163 -0.29656038 89 181 93
-0.09289675 -0.37193286 -0.2879821 48 136 43
-0.1114946 -0.3784667 -0.27971476 85 179 86
-0.14479251 -0.36546236 -0.27348065 87 181 89
-0.17464131 -0.3523855 -0.26838467 79 161 79
-0.16895334 -0.38806224 -0.25784588 44 90 24
-0.04921178 -0.61735004 -0.21695745 127 124 110
-0.07798164 -0.6204337 -0.2066045 124 119 106
-0.107766375 -0.61815935 -0.1977824 108 103 99
-0.13391885 -0.6194955 -0.18888012 163 157 150
-0.15959434 -0.6182831 -0.18101566 167 159 151
-0.18389195 -0.6164826 -0.1737998 154 147 138
-0.20643236 -0.6154913 -0.16687031 127 115 108
-0.23010169 -0.60574466 -0.16261324 74 52 33
-0.24922065 -0.6071594 -0.15595326 69 47 30
1.0747216 -0.54760134 -0.6739125 48 25 8
1.0574212 -0.5983573 -0.65204626 43 20 5
0.9921488 -0.63175386 -0.6183445 168 159 157
0.8534786 -0.6300862 -0.5691589 181 176 173
0.7345732 -0.62929165 -0.5267877 187 181 176
0.63218415 -0.62964314 -0.48998234 185 181 175
0.101949096 -0.36362445 -0.38204852 73 166 70
0.06911233 -0.37013835 -0.36826906 79 185 88
0.025798246 -0.36709157 -0.3536854 108 206 114
-0.011842749 -0.36496145 -0.34085208 106 200 109
-0.044256907 -0.36416537 -0.32948038 101 193 103
-0.07500075 -0.36215264 -0.3190828 97 184 98
-0.0955388 -0.36788017 -0.30995405 49 134 46
-0.10711051 -0.38250732 -0.30129206 74 166 77
-0.13357417 -0.37891108 -0.29291728 85 181 86
-0.17367381 -0.35349646 -0.28638944 102 186 106
-0.18059467 -0.37068793 -0.27860284 50 100 36
-0.11066443 -0.5165188 -0.25865608 99 100 88
-0.077107206 -0.6237686 -0.2375809 109 104 91
-0.10755478 -0.621133 -0.22748174 95 88 79
-0.13564621 -0.6190594 -0.21805361 38 30 13
-0.16077724 -0.61974835 -0.20883384 92 84 65
-0.18500166 -0.6188978 -0.20041417 155 148 139
-0.20759946 -0.61860013 -0.19240685 149 142 136
-0.22894607 -0.6181693 -0.18488905 124 113 104
-0.24985586 -0.61456406 -0.1785076 79 57 39
1.0489541 -0.58374864 -0.72600603 45 21 4
1.022589 -0.6329669 -0.70232916 158 151 147
0.8783976 -0.6314171 -0.64577496 169 162 159
0.7522813 -0.62933105 -0.5965069 187 179 173
0.6430502 -0.6278218 -0.553755 184 178 171
0.10575978 -0.36232498 -0.41299158 117 213 125
0.06933746 -0.36706272 -0.39732432 109 207 115
0.027545135 -0.3655684 -0.38121423 111 207 115
-0.01010778 -0.36395383 -0.3667721 108 202 113
-0.043515332 -0.362802 -0.35388264 103 194 106
-0.07318089 -0.36224267 -0.34231213 100 187 100
-0.09767437 -0.36434886 -0.33206704 52 135 52
-0.114087135 -0.37356207 -0.32310006 95 187 97
-0.13332677 -0.37859827 -0.31414148 94 185 95
-0.16910127 -0.35953772 -0.30514157 99 186 104
-0.18458979 -0.36481687 -0.2975996 53 102 38
-0.13404883 -0.47852296 -0.28693587 58 67 59
-0.13109086 -0.5265745 -0.27515924 50 54 46
-0.10772945 -0.62341225 -0.25830093 85 80 69
-0.13682765 -0.6199348 -0.24774072 105 97 78
-0.16286448 -0.6190508 -0.23769143 110 100 78
-0.1869575 -0.619077 -0.22816491 115 105 83
-0.20979613 -0.61861205 -0.21926637 133 123 108
-0.23032603 -0.6217856 -0.21029979 150 141 133
-0.24981795 -0.62535244 -0.20163737 119 110 100
-0.26734382 -0.6345837 -0.19222572 82 65 54
1.0582502 -0.5753245 -0.8064577 48 24 5
1.0311162 -0.6249256 -0.78335077 100 92 89
0.9057109 -0.6332375 -0.7271666 170 164 159
0.77239406 -0.63011175 -0.67017823 190 182 179
0.6563312 -0.6269936 -0.62065625 186 181 172
0.52900714 -0.60884327 -0.5697035 154 192 142
0.07372653 -0.36663324 -0.4281258 117 215 123
0.031021021 -0.3652033 -0.40996888 143 230 165
-0.007304866 -0.36371344 -0.3937213 115 205 118
-0.042297855 -0.36179715 -0.37901405 108 197 110
-0.0718286 -0.36183578 -0.3662232 105 192 107
-0.0989795 -0.36166662 -0.35451004 104 189 105
-0.12129884 -0.36437878 -0.34422812 105 189 106
-0.14149171 -0.36779293 -0.3347058 100 189 104
-0.16457435 -0.3655004 -0.32523993 93 184 99
-0.18717235 -0.36107254 -0.316473 45 104 32
-0.1410585 -0.4676327 -0.31202245 60 69 59
-0.14751032 -0.49788794 -0.30229914 59 66 56
-0.13719329 -0.56594414 -0.2911747 45 45 38
-0.13896391 -0.618732 -0.27831593 77 70 57
-0.16484492 -0.61872065 -0.26711625 102 92 69
-0.18935984 -0.61810416 -0.25664654 108 99 75
-0.21255814 -0.61692894 -0.24687468 116 106 86
-0.23341484 -0.6192821 -0.23730807 159 151 143
-0.25247824 -0.62500376 -0.22774607 153 145 137
-0.2703956 -0.6330173 -0.21815506 116 105 96
1.0282818 -0.6122062 -0.8620117 39 18 4
0.93340254 -0.63461107 -0.813061 171 161 156
0.7957808 -0.6319792 -0.74864906 190 182 176
0.67558354 -0.62897134 -0.69252557 189 184 175
0.5655057 -0.62313235 -0.64170563 192 188 177
0.07207497 -0.36219224 -0.45794696 34 126 37
0.035769265 -0.36563385 -0.44017866 114 210 120
-0.0038565756 -0.36388803 -0.4218177 90 182 99
-0.03913923 -0.362392 -0.4054582 116 204 123
-0.069338374 -0.36244363 -0.3912059 104 189 107
-0.09711979 -0.36222407 -0.3781447 106 188 114
-0.12102655 -0.36368775 -0.36659512 102 189 105
-0.14313069 -0.36512387 -0.35590088 75 159 81
-0.1657167 -0.36369354 -0.3455171 102 191 106
-0.18894416 -0.3585508 -0.3355273 62 139 59
-0.18201385 -0.40016797 -0.33098802 54 77 51
-0.14706972 -0.5001704 -0.3287071 51 58 49
-0.15469745 -0.5325162 -0.3190413 43 45 37
-0.146939 -0.6042089 -0.30925015 64 60 50
-0.16691925 -0.6182541 -0.29719195 91 81 61
-0.19115074 -0.61902636 -0.28561893 99 89 68
-0.21491507 -0.61670786 -0.2748461 106 99 76
-0.23669001 -0.61617744 -0.26467603 161 156 149
-0.25601122 -0.62098145 -0.2546624 176 169 164
-0.27429938 -0.62714124 -0.24488163 154 147 140
-0.29123417 -0.6380061 -0.23485644 132 120 111
1.051271 -0.60904616 -0.95340174 47 23 4
0.95179915 -0.63144803 -0.89927274 51 46 37
0.82141566 -0.6343608 -0.8321569 174 166 159
0.69435096 -0.63024443 -0.7677577 186 181 172
0.5847557 -0.6267941 -0.71219784 192 187 177
0.07162558 -0.35847697 -0.48861742 73 164 74
0.038949825 -0.36483976 -0.47098082 112 206 114
0.0005969857 -0.36473894 -0.45137724 108 202 112
-0.03557119 -0.36324877 -0.43309256 72 160 72
-0.06697719 -0.36286396 -0.4170836 86 169 89
-0.09504368 -0.36295295 -0.40271416 90 174 95
-0.12099502 -0.36269873 -0.38947642 65 150 66
-0.14300062 -0.36464062 -0.37793866 123 207 137
-0.16562718 -0.36356577 -0.36652055 104 192 107
-0.1900742 -0.35699862 -0.35496742 100 178 115
-0.19470172 -0.37964207 -0.349318 50 102 37
-0.14195672 -0.51116455 -0.35723263 58 68 58
-0.15614001 -0.53195363 -0.34696406 44 50 41
-0.16163376 -0.5740493 -0.33805174 37 37 30
-0.1685324 -0.6190943 -0.32799327 76 67 51
-0.19321966 -0.619293 -0.31533647 94 86 66
-0.2170541 -0.6173857 -0.3034212 100 95 74
-0.23925926 -0.61591667 -0.2922758 163 159 153
-0.2591515 -0.6188252 -0.28167894 185 180 178
-0.27758494 -0.62462085 -0.27140978 185 181 177
-0.29488185 -0.63360506 -0.26125973 165 157 153
0.99461234 -0.63785285 -1.0014538 149 139 135
0.84645605 -0.63587856 -0.9197868 159 153 146
0.71619755 -0.6326372 -0.8481376 187 182 173
0.59835714 -0.6268068 -0.78361195 184 181 171
0.07935531 -0.35983816 -0.5238109 115 211 120
0.043177437 -0.3646643 -0.5033324 108 205 111
0.0041235397 -0.36476585 -0.48174214 102 196 104
-0.031792805 -0.36418924 -0.46195418 104 192 109
-0.06422554 -0.36357793 -0.44409463 100 186 106
-0.09342256 -0.36316377 -0.4280031 105 189 111
-0.12010177 -0.36265114 -0.41331282 98 184 104
-0.14295268 -0.36403802 -0.40054595 102 188 106
-0.16505931 -0.36408395 -0.3883259 103 192 107
-0.19072367 -0.3561744 -0.37494394 110 196 119
-0.19979554 -0.37175253 -0.36835662 51 105 38
-0.13460338 -0.52644557 -0.38874447 56 66 56
-0.15253264 -0.5419269 -0.37727258 43 49 40
-0.16565248 -0.5683839 -0.36734882 40 41 33
-0.17116842 -0.61738735 -0.35934797 67 58 43
-0.19571954 -0.61843026 -0.3456764 92 85 64
-0.21929486 -0.61791575 -0.33270139 99 93 72
-0.24158186 -0.6168409 -0.32049492 168 165 164
-0.26245767 -0.6160579 -0.30903876 204 202 208
-0.2813074 -0.61982733 -0.29824194 212 209 213
-0.29915977 -0.6249206 -0.28786248 200 195 195
-0.3157629 -0.6352929 -0.27763978 186 181 181
1.0223095 -0.637242 -1.1015604 38 21 11
0.8736508 -0.63777405 -1.0131044 166 157 150
0.73749655 -0.6342345 -0.9323142 192 183 175
0.61410236 -0.62765527 -0.8592838 184 179 168
0.497054 -0.61514014 -0.79036 184 192 172
0.048416853 -0.36505637 -0.5374775 110 210 115
0.008624102 -0.36542368 -0.51378715 110 203 115
-0.028354242 -0.36474693 -0.4918293 96 187 101
-0.061614685 -0.36408737 -0.47208196 93 179 97
-0.09110396 -0.3640305 -0.4545441 93 179 99
-0.118381985 -0.3634938 -0.43834844 93 180 98
-0.14342624 -0.36277393 -0.42349172 106 192 110
-0.16445097 -0.3646485 -0.41088083 102 191 106
-0.18948701 -0.35820213 -0.39634907 104 192 111
-0.20360248 -0.3660045 -0.38751668 54 108 42
-0.1348902 -0.52762425 -0.41935456 60 71 61
-0.15099005 -0.54776734 -0.408652 50 58 48
-0.16599825 -0.57133716 -0.39840725 41 44 38
-0.17175625 -0.6212027 -0.3921949 62 56 41
-0.19814469 -0.6179276 -0.37668145 93 87 66
-0.22192557 -0.6172969 -0.36257115 97 91 70
-0.24438903 -0.61606926 -0.3492779 154 152 147
-0.26530686 -0.6156198 -0.33686057 233 233 240
-0.2845215 -0.6180251 -0.32529673 238 239 243
-0.30261427 -0.6219228 -0.31431684 211 210 219
-0.3195988 -0.62923175 -0.3038054 204 202 207
0.8974786 -0.6375305 -1.1091412 169 162 153
0.7608743 -0.63633615 -1.0219517 182 174 166
0.636975 -0.6320228 -0.94290173 193 186 175
0.5194217 -0.6217734 -0.8679582 198 195 185
0.05269233 -0.3646496 -0.5724337 39 133 32
0.013506035 -0.36624354 -0.5474044 107 201 111
-0.024539554 -0.3655183 -0.523125 105 196 109
-0.059144642 -0.36439222 -0.5010456 94 182 99
-0.08972732 -0.3638862 -0.481528 91 177 97
-0.117551096 -0.36330387 -0.46377227 100 182 100
-0.14238083 -0.36336437 -0.44792178 105 191 109
-0.16448924 -0.3643228 -0.4338 98 186 103
-0.1878598 -0.3608271 -0.41891432 91 184 96
-0.20642053 -0.36191055 -0.407056 49 106 36
-0.15592511 -0.48998043 -0.43808916 62 73 61
-0.16245177 -0.52645034 -0.4335811 46 55 45
-0.16782917 -0.57092345 -0.42973164 42 46 39
-0.17407577 -0.62059224 -0.42527863 66 62 48
-0.2001934 -0.61872697 -0.40862402 92 87 66
-0.22450212 -0.61704797 -0.3931224 97 93 72
-0.24715069 -0.6156943 -0.3786775 109 107 88
-0.26807347 -0.61585677 -0.36532003 234 236 243
-0.28783572 -0.61587274 -0.35270473 249 248 249
-0.30621514 -0.6180387 -0.340952 242 241 248
-0.32359973 -0.62146544 -0.32982254 250 248 254
-0.33977264 -0.63189787 -0.31940088 210 206 208
0.91891074 -0.63564104 -1.2080394 158 150 143
0.78365743 -0.6375742 -1.1157113 173 165 158
0.65257686 -0.63190365 -1.0259409 99 92 86
0.53879035 -0.6260917 -0.9479799 198 193 182
0.05333777 -0.36167663 -0.6061315 82 171 78
0.020406319 -0.36842752 -0.58389366 102 198 104
-0.020366322 -0.3664777 -0.5559634 106 195 106
-0.055811487 -0.3654037 -0.53170645 88 174 87
-0.08814989 -0.36389062 -0.5095551 98 183 101
-0.11652426 -0.36329514 -0.49014732 91 177 93
-0.14173397 -0.36343992 -0.4729301 99 184 102
-0.1648821 -0.3635066 -0.45711827 42 131 40
-0.18699947 -0.36230066 -0.44196162 118 204 126
-0.20900314 -0.35821307 -0.4267715 62 138 59
-0.19125828 -0.4251831 -0.44147685 121 118 96
-0.16817415 -0.5170707 -0.4607908 55 63 53
-0.17552479 -0.55663365 -0.4572946 45 52 45
-0.18005395 -0.6102095 -0.45626628 57 55 47
-0.20220669 -0.61982965 -0.44150296 91 86 62
-0.22676362 -0.6181303 -0.42466053 101 97 74
-0.24975885 -0.6162037 -0.40887636 111 108 88
-0.27077523 -0.61674327 -0.39453912 196 195 196
-0.29085374 -0.6157889 -0.38078505 216 218 224
-0.30948836 -0.6168759 -0.3680961 226 227 234
-0.32700545 -0.619693 -0.35623738 209 208 213
-0.34370258 -0.6232848 -0.3449687 204 201 202
0.805846 -0.6379486 -1.2135931 160 154 147
0.6734963 -0.6341932 -1.1167274 181 173 165
0.5552305 -0.6281972 -1.029937 201 195 184
0.055022396 -0.359311 -0.64143294 108 208 113
0.03325615 -0.37481174 -0.6269203 105 202 106
-0.0153312 -0.3680235 -0.59088373 99 191 99
-0.05280799 -0.36602753 -0.5633727 99 188 101
-0.085912116 -0.36449695 -0.53909194 66 151 61
-0.11516433 -0.36361507 -0.5176779 65 148 63
-0.14119266 -0.36336207 -0.4986706 61 146 60
-0.16482393 -0.36329645 -0.48142827 102 187 101
-0.18675266 -0.36285308 -0.4653945 103 190 103
-0.21089888 -0.3556766 -0.44715106 86 169 84
-0.2128889 -0.38578218 -0.44834787 51 105 36
-0.15973921 -0.5377233 -0.5004812 37 47 39
-0.17561787 -0.5604723 -0.49090052 50 55 46
-0.19010618 -0.58860207 -0.48280737 43 45 40
-0.20419614 -0.6212185 -0.4753994 88 82 60
-0.22914237 -0.6190422 -0.45701224 103 98 73
-0.2523528 -0.6170644 -0.43990862 112 109 85
-0.27357858 -0.61748207 -0.42446333 166 164 158
-0.29391247 -0.61585057 -0.40948835 184 182 177
-0.31298998 -0.6142587 -0.39543322 192 189 187
-0.3305866 -0.6164445 -0.38279057 200 197 195
-0.3473068 -0.6196327 -0.37087536 195 191 189
-0.36324057 -0.6260335 -0.35981634 192 187 184
0.815513 -0.6318701 -1.3055525 160 152 146
0.6897425 -0.63349104 -1.2080469 190 183 173
0.5688125 -0.6281922 -1.1133413 199 191 178
0.47249347 -0.6285792 -1.0385498 208 205 193
0.0302641 -0.3694197 -0.65891004 30 130 21
-0.005692797 -0.3731505 -0.63148785 97 192 95
-0.04931123 -0.3670031 -0.5967398 98 188 100
-0.084129386 -0.36458522 -0.5693483 99 186 100
-0.11437016 -0.36326826 -0.5456665 96 181 97
-0.14075698 -0.36313078 -0.5251434 96 181 98
-0.16472933 -0.36312705 -0.506515 97 184 98
-0.1877064 -0.36159432 -0.48844758 105 193 104
-0.21237053 -0.35386488 -0.46820837 99 188 101
-0.22034216 -0.37298363 -0.46466994 59 109 45
-0.14751576 -0.5668126 -0.5481869 67 78 65
-0.17411013 -0.5683644 -0.52773714 56 63 54
-0.19279185 -0.5870352 -0.5158141 56 58 50
-0.20704372 -0.6201022 -0.5093333 83 74 56
-0.23163854 -0.61978364 -0.49017748 104 99 75
-0.25472033 -0.61924595 -0.47216696 112 108 84
-0.2764837 -0.6180731 -0.45509264 165 161 151
-0.2968994 -0.6168358 -0.43905658 174 170 162
-0.31612897 -0.615087 -0.42387116 178 177 168
-0.3339926 -0.6156488 -0.41006818 186 182 176
-0.3508611 -0.6173731 -0.39719996 191 187 181
-0.3669016 -0.620715 -0.38519984 195 191 185
0.704677 -0.6316429 -1.3020874 175 168 157
0.58271885 -0.6279777 -1.2006203 192 185 173
0.4778004 -0.6248579 -1.1133363 198 192 183
0.019053897 -0.35809964 -0.6832261 49 149 48
0.0019356625 -0.3764668 -0.67259955 104 207 103
-0.04631336 -0.36743632 -0.6310057 97 186 97
-0.082636714 -0.3643236 -0.60039824 98 186 97
-0.1135445 -0.36291546 -0.5745917 98 183 97
-0.14083686 -0.3622465 -0.5519139 97 182 94
-0.16447565 -0.36316413 -0.5325586 102 187 101
-0.18740514 -0.36224082 -0.51343685 99 187 101
-0.21131608 -0.35634843 -0.4925526 104 189 104
-0.22794199 -0.35983142 -0.47948277 60 112 47
-0.13958043 -0.5871393 -0.5960162 73 82 70
-0.17164142 -0.57886213 -0.5679416 58 64 55
-0.19414476 -0.58931464 -0.55135024 51 53 45
-0.20984405 -0.6193063 -0.54412204 80 74 56
-0.23437655 -0.6198824 -0.523963 107 102 77
-0.25732884 -0.6207467 -0.5051646 33 30 14
-0.2793074 -0.61952263 -0.48677093 162 158 146
-0.29998806 -0.6176733 -0.46932986 174 171 159
-0.31927413 -0.61657995 -0.45318577 179 173 164
-0.33744413 -0.6150313 -0.4378767 180 176 169
-0.35439485 -0.61646324 -0.42414576 187 181 174
-0.37049574 -0.6197495 -0.41147202 191 183 177
-0.3860384 -0.6304613 -0.40068144 194 188 179
0.7183233 -0.62868273 -1.3986862 169 162 153
0.5984664 -0.62839645 -1.2935032 190 182 172
0.48797 -0.62398946 -1.1955163 199 194 185
0.39629477 -0.6228349 -1.1148348 217 210 201
-0.014866913 -0.3602665 -0.6897257 74 172 76
-0.04109128 -0.3697327 -0.6690537 105 193 102
-0.07946219 -0.36564746 -0.63439894 105 190 102
-0.11154946 -0.3637958 -0.6058039 104 188 100
-0.13872062 -0.36400852 -0.58202744 108 191 104
-0.16318962 -0.36459053 -0.56071156 107 190 103
-0.18591337 -0.36469883 -0.54080975 106 191 104
-0.21006876 -0.3591937 -0.51827294 101 188 100
-0.22967316 -0.35783264 -0.5007458 57 108 42
-0.1386988 -0.5925528 -0.63821155 66 75 65
-0.17919019 -0.56495833 -0.59591985 70 79 67
-0.19734523 -0.5865754 -0.58531064 60 65 54
-0.21329492 -0.6165585 -0.57869124 59 58 37
-0.23746547 -0.61888915 -0.55806684 105 99 78
-0.2608958 -0.61820996 -0.5373519 119 116 92
-0.2824237 -0.6198069 -0.51886463 167 165 155
-0.30303618 -0.6193887 -0.50068504 205 205 207
-0.3225249 -0.61791945 -0.48323268 181 176 165
-0.3409089 -0.6151271 -0.46642396 185 180 170
-0.35795885 -0.61630136 -0.45176 188 183 174
-0.37415853 -0.6175493 -0.43785977 194 186 178
-0.3896687 -0.62336665 -0.42568725 194 188 179
0.6129352 -0.6276382 -1.3891282 132 123 113
0.5013795 -0.62481946 -1.2845968 202 194 186
0.4071775 -0.62400925 -1.1968006 206 200 193
0.3194581 -0.6194155 -1.1138873 213 208 199
-0.044288047 -0.3645413 -0.6989006 101 191 102
-0.0775126 -0.36569226 -0.6683689 96 187 95
-0.10900191 -0.36522013 -0.63896 105 190 102
-0.13756128 -0.3645725 -0.61222136 108 189 104
-0.16017705 -0.36834097 -0.5923394 59 143 55
-0.18317944 -0.36905083 -0.5711751 64 147 58
-0.2074586 -0.36439952 -0.54720616 96 182 92
-0.23134762 -0.3559631 -0.52245754 63 129 54
-0.12507576 -0.62594163 -0.7027046 121 121 100
-0.18427713 -0.55704993 -0.6268915 79 85 76
-0.20361248 -0.575136 -0.6143794 80 85 70
-0.21548323 -0.6181619 -0.6163315 91 84 67
-0.24029799 -0.61914194 -0.59356433 114 108 87
-0.2642246 -0.6170111 -0.5706837 119 116 94
-0.286144 -0.61699295 -0.5503062 152 149 137
-0.30647045 -0.618905 -0.5319917 180 176 166
-0.32585594 -0.6193669 -0.51411414 184 178 169
-0.3443364 -0.616987 -0.49622008 186 180 171
-0.36166766 -0.6138173 -0.4791557 87 81 71
-0.3778627 -0.6161401 -0.464805 193 186 175
-0.39337584 -0.62010527 -0.45158362 194 188 179
-0.40877298 -0.6327975 -0.44110385 199 191 183
0.6208671 -0.62282777 -1.4810914 182 174 167
0.5164683 -0.6262844 -1.379651 199 189 183
0.418999 -0.6255021 -1.2835014 217 207 201
0.33481485 -0.6257496 -1.2007892 221 213 207
0.25899196 -0.62490445 -1.1259079 206 202 194
-0.07777803 -0.36351982 -0.7006499 110 193 106
-0.1038453 -0.36939994 -0.67712593 46 131 41
-0.13444605 -0.36746565 -0.64633214 106 189 102
-0.15907942 -0.36948135 -0.6228285 55 137 49
-0.17938808 -0.3750212 -0.6048461 94 185 91
-0.20409778 -0.3709406 -0.57907456 105 193 104
-0.22994128 -0.36007082 -0.54974574 85 162 79
-0.24020754 -0.37696287 -0.54572415 65 103 44
-0.16091457 -0.620708 -0.71138984 133 130 110
-0.18849093 -0.6257569 -0.68608254 123 119 99
-0.21626756 -0.62482554 -0.6584272 144 136 116
-0.24324779 -0.61922425 -0.6298754 134 128 109
-0.2674468 -0.6166284 -0.6051402 132 126 107
-0.28999892 -0.6136135 -0.58187413 135 130 113
-0.31037042 -0.6152872 -0.5624393 172 168 161
-0.3296238 -0.61703646 -0.5441314 183 178 169
-0.34797916 -0.61682427 -0.5260013 188 181 172
-0.3653236 -0.6151058 -0.5083236 192 186 179
-0.38162875 -0.6160597 -0.49262944 197 191 182
-0.3970814 -0.61593586 -0.47738612 149 144 137
-0.41208726 -0.62184215 -0.46475124 196 191 182
1.1344975 -0.5498457 -0.42515093 33 14 4
1.1066135 -0.5945764 -0.4007654 22 8 2
1.0464708 -0.6281162 -0.37459853 75 72 70
0.915787 -0.6303891 -0.34738994 86 84 80
0.7947967 -0.62973917 -0.32335612 85 83 80
0.67801434 -0.6239238 -0.30233684 0 5 0
0.13371928 -0.36950532 -0.29982662 95 197 103
0.077688605 -0.36236253 -0.2915696 102 203 106
0.044233594 -0.36612007 -0.2832707 103 201 109
0.008743093 -0.3663472 -0.27604532 104 202 111
-0.021864157 -0.36792862 -0.26923227 101 197 106
-0.04961744 -0.36982062 -0.2628622 95 189 100
-0.074335925 -0.37257433 -0.25673997 89 178 90
-0.09868155 -0.37392843 -0.25128034 89 178 89
-0.12328247 -0.3730174 -0.24672063 91 179 92
-0.1504748 -0.36657813 -0.24396177 73 147 67
0.00049922284 -0.5969025 -0.17757238 198 197 188
-0.020623261 -0.6149718 -0.16574109 199 195 189
-0.05023144 -0.61922514 -0.15800679 193 189 184
-0.07877446 -0.62253135 -0.15088417 184 180 174
-0.10750055 -0.6224401 -0.14515147 160 151 143
-0.13638452 -0.618217 -0.14112212 133 122 113
-0.16425605 -0.6116696 -0.13827226 100 84 70
-0.19071478 -0.60350996 -0.1363832 66 42 23
-0.21103097 -0.60804564 -0.13039704 65 39 21
-0.22971192 -0.61539954 -0.123555966 62 34 15
1.1205839 -0.5853625 -0.47308853 46 21 6
1.0910007 -0.63135 -0.44853333 138 132 127
0.9548748 -0.6342901 -0.41575462 180 173 171
0.8266072 -0.6330548 -0.3864079 162 157 156
0.7120435 -0.6308819 -0.36060774 187 184 182
0.20895725 -0.40617323 -0.3300194 108 196 113
0.093771726 -0.36764753 -0.31804845 24 128 10
0.059278194 -0.37195677 -0.30837244 89 189 84
0.02149932 -0.37180611 -0.29964697 89 186 91
-0.013793518 -0.37085083 -0.29180878 66 132 69
-0.044095296 -0.37143293 -0.28454 70 149 77
-0.07099629 -0.37285745 -0.2777381 88 180 88
-0.093495876 -0.37669507 -0.2710319 82 176 83
-0.115030356 -0.38002604 -0.26474485 77 172 77
-0.14693135 -0.3690252 -0.2615567 87 176 89
-0.17060131 -0.36476496 -0.25769117 44 99 29
-0.015029459 -0.62079996 -0.19544259 191 189 182
-0.050134484 -0.6175688 -0.18852289 184 182 175
-0.07854363 -0.6217403 -0.18031445 181 175 168
-0.107648395 -0.6216095 -0.17359802 164 157 148
-0.13548188 -0.62034833 -0.16761166 146 137 127
-0.16183184 -0.618471 -0.16220705 121 110 96
-0.18870072 -0.61072844 -0.1589364 89 70 57
-0.21090999 -0.61114454 -0.1536129 66 42 21
-0.23008491 -0.6180013 -0.14651915 65 36 21
-0.2480439 -0.62729156 -0.13877267 67 39 22
1.1195048 -0.5707992 -0.5452342 46 21 4
1.1084276 -0.62366986 -0.52390444 42 19 5
0.9870164 -0.63447994 -0.48797932 179 172 169
0.8538238 -0.6335609 -0.45301396 192 186 185
0.73255664 -0.63036495 -0.4220001 191 187 183
0.6284058 -0.62860316 -0.3950217 191 189 183
0.09933801 -0.36628306 -0.34613103 24 127 17
0.06306547 -0.37008584 -0.3351987 84 192 84
0.02171283 -0.3679973 -0.3249703 102 205 109
-0.014184758 -0.36695635 -0.31582257 102 200 108
-0.044069782 -0.3682021 -0.30747208 84 181 91
-0.071748085 -0.36922044 -0.2997853 76 168 80
-0.09534728 -0.37216285 -0.29250968 52 138 46
-0.11250609 -0.38048095 -0.28506988 86 182 87
-0.13640583 -0.3798742 -0.27894956 86 180 87
-0.17280966 -0.36020142 -0.27615026 70 153 68
-0.18110593 -0.3755579 -0.26860946 46 96 30
-0.049281977 -0.61708635 -0.2194972 130 127 115
-0.07944035 -0.6189221 -0.21086901 126 121 108
-0.107630946 -0.6210898 -0.2026466 105 101 90
-0.13536699 -0.6207717 -0.19540952 154 149 140
-0.1612384 -0.62087727 -0.18851902 136 126 115
-0.18616807 -0.6194516 -0.18241075 111 95 85
-0.21097888 -0.61375684 -0.17781928 75 56 39
-0.23047242 -0.62068146 -0.17024583 67 42 24
-0.2487479 -0.6299925 -0.16216475 63 37 20
1.1002852 -0.60638875 -0.5970214 46 21 5
1.0240384 -0.6358352 -0.5651415 170 164 161
0.8827045 -0.6341287 -0.5235256 179 174 173
0.75673056 -0.6310913 -0.48690325 200 194 189
0.6461512 -0.628062 -0.45486903 192 188 181
0.102705084 -0.3634566 -0.37497276 71 162 67
0.069889605 -0.37003607 -0.36314428 98 210 107
0.023387698 -0.36515892 -0.35079172 108 209 114
-0.012753344 -0.36442313 -0.34024292 106 201 110
-0.043095417 -0.36572164 -0.33079174 99 192 102
-0.07120389 -0.36674622 -0.32209164 95 185 98
-0.09486215 -0.36997712 -0.31403357 48 135 44
-0.10955073 -0.38132563 -0.30612972 68 160 70
-0.13035679 -0.38510215 -0.29875275 85 177 85
-0.16975658 -0.36261055 -0.29398733 93 179 97
-0.18275304 -0.3717697 -0.2872679 51 101 35
-0.1288141 -0.4878225 -0.26731834 63 69 62
-0.08168624 -0.613698 -0.2422878 108 103 91
-0.10817909 -0.6194493 -0.23260185 103 96 85
-0.135566 -0.6205171 -0.22410353 111 103 84
-0.16199094 -0.6200447 -0.21637028 82 78 61
-0.18683523 -0.61953646 -0.20911953 60 44 31
-0.21045968 -0.618286 -0.20246296 66 50 31
-0.232194 -0.618779 -0.1958287 70 47 30
-0.25098938 -0.6265886 -0.18779907 68 42 24
-0.2690372 -0.63544554 -0.17966717 61 33 14
1.100892 -0.5921401 -0.6722213 49 25 7
1.059495 -0.63570637 -0.6466092 159 152 149
0.9132132 -0.63468134 -0.5982675 172 166 163
0.7785498 -0.63008314 -0.5547595 157 154 146
0.6616828 -0.62587875 -0.5170595 183 179 173
0.10506593 -0.35991925 -0.40441042 117 208 122
0.07170005 -0.36661187 -0.39149958 113 211 117
0.029478146 -0.36529905 -0.3778232 114 211 119
-0.007288388 -0.36487928 -0.36571708 107 203 112
-0.040018134 -0.3649246 -0.35482615 105 199 109
-0.069395326 -0.36536768 -0.3449413 102 191 104
-0.09514097 -0.36697397 -0.33594707 86 171 86
-0.11469432 -0.37321043 -0.32775128 74 157 71
-0.1349747 -0.37739033 -0.31987336 95 186 96
-0.16358672 -0.36904415 -0.31263408 97 186 101
-0.18383093 -0.3687996 -0.30597192 48 99 33
-0.14413515 -0.46189427 -0.29383835 71 79 69
-0.14383243 -0.5028453 -0.28279778 51 55 46
-0.10927474 -0.61672634 -0.2633013 87 80 69
-0.13562892 -0.62056315 -0.25349796 107 99 81
-0.16240932 -0.62004864 -0.24473678 109 100 76
-0.18795282 -0.61843437 -0.23668589 106 95 73
-0.21175277 -0.61729705 -0.22908476 99 87 68
-0.23328121 -0.61920804 -0.2214093 90 73 61
-0.2525884 -0.62590134 -0.21317105 67 43 24
-0.27106965 -0.6335497 -0.2049475 65 40 23
1.0670729 -0.62421125 -0.7248511 44 27 14
0.94633245 -0.63556963 -0.6778393 166 160 155
0.8049421 -0.6306226 -0.6270312 189 183 176
0.68453854 -0.6270149 -0.583624 189 183 176
0.57350177 -0.6204118 -0.5443556 182 182 170
0.07873285 -0.36634445 -0.42162684 112 211 119
0.03523022 -0.36502555 -0.40594712 84 183 86
-0.0025535296 -0.36462164 -0.39215615 112 206 122
-0.036444496 -0.36442304 -0.37974796 105 198 110
-0.06709809 -0.36434588 -0.36850125 103 192 107
-0.094391406 -0.36494753 -0.35833147 101 186 100
-0.11759498 -0.3675794 -0.3491924 103 188 104
-0.13971068 -0.36957726 -0.3406006 101 188 102
-0.164252 -0.36639863 -0.33232138 93 181 97
-0.1863605 -0.36372343 -0.32481906 47 112 35
-0.15810327 -0.4382646 -0.3178664 55 66 55
-0.15310894 -0.4854904 -0.30871806 60 69 59
-0.14901802 -0.53851956 -0.29788795 61 59 51
-0.13513008 -0.62183744 -0.2836136 71 66 54
-0.16271186 -0.6203622 -0.27382082 99 90 68
-0.1882215 -0.6197113 -0.26459786 107 95 74
-0.21252863 -0.61799103 -0.2560655 105 95 72
-0.23503844 -0.6173394 -0.24794506 116 105 95
-0.25490522 -0.6223375 -0.2394819 86 67 55
-0.2738905 -0.6278853 -0.2312148 67 44 27
-0.29195172 -0.63494474 -0.22293577 65 41 24
1.0755172 -0.61271644 -0.8050654 45 23 6
0.97795683 -0.63501996 -0.7614116 166 159 156
0.83581704 -0.63251805 -0.70453024 185 177 171
0.7051323 -0.6264066 -0.65296465 188 183 174
0.59903395 -0.62473744 -0.61046815 190 184 175
0.07818594 -0.36122015 -0.450872 48 143 44
0.04254093 -0.36562446 -0.43564147 115 211 120
0.0038849227 -0.36547256 -0.42007065 105 200 111
-0.03122949 -0.36513075 -0.40596554 221 250 238
-0.06321868 -0.36464047 -0.39315015 150 232 185
-0.09211293 -0.36435744 -0.38154396 123 206 143
-0.11864614 -0.36394778 -0.3709149 83 173 80
-0.14090939 -0.36598858 -0.3615385 71 155 72
-0.16629867 -0.36193147 -0.3520714 99 189 104
-0.1883148 -0.35947818 -0.34365764 73 154 71
-0.18843818 -0.38885063 -0.33796817 45 96 32
-0.14904849 -0.49159193 -0.33413732 53 61 51
-0.15726422 -0.52191275 -0.325 41 43 35
-0.14695942 -0.5962641 -0.31488267 38 39 33
-0.16271041 -0.6214484 -0.3036907 87 78 62
-0.18876666 -0.62028587 -0.29339865 97 87 65
-0.21322596 -0.6190186 -0.2837712 104 97 74
-0.23619142 -0.61773825 -0.2747491 139 131 123
-0.25680247 -0.6206115 -0.2658797 120 108 99
-0.27593815 -0.6261185 -0.2570999 82 63 50
-0.29456675 -0.63051695 -0.24873762 68 46 28
1.0232067 -0.6390977 -0.8545711 149 141 137
0.8671944 -0.633848 -0.7866141 179 171 165
0.73194337 -0.6282967 -0.72785085 184 178 171
0.614203 -0.6227398 -0.67680436 190 184 177
0.084123366 -0.35994902 -0.48272443 126 221 136
0.048451412 -0.36507818 -0.4662349 114 210 118
0.009183881 -0.36529794 -0.44889882 110 204 113
-0.026521184 -0.36526844 -0.43317 109 200 115
-0.05871282 -0.36535746 -0.41897157 95 183 99
-0.08834623 -0.36511734 -0.40594983 93 176 97
-0.115576066 -0.36468562 -0.39401603 114 195 121
-0.13961363 -0.3653065 -0.38333067 105 192 109
-0.16374078 -0.363413 -0.3729838 103 192 107
-0.189852 -0.35582572 -0.3626184 131 213 156
-0.19960846 -0.3700132 -0.3561869 50 102 35
-0.14109932 -0.5044371 -0.36176503 56 69 57
-0.15623292 -0.52340573 -0.35224554 46 52 43
-0.16362655 -0.5601359 -0.34346712 36 37 29
-0.16339394 -0.62088954 -0.33443847 64 57 43
-0.18975627 -0.6196865 -0.32300287 91 84 63
-0.2141736 -0.619348 -0.3122944 99 92 71
-0.23742278 -0.6179708 -0.30225673 145 141 135
-0.25881362 -0.6185082 -0.2927502 146 140 135
-0.2783048 -0.6228688 -0.28350616 118 108 103
-0.2971544 -0.6263346 -0.27467927 75 56 43
-0.3149299 -0.632088 -0.26598185 70 48 30
1.0187782 -0.6227585 -0.93203545 62 54 44
0.8971231 -0.6337351 -0.8726101 126 119 120
0.7601846 -0.63016593 -0.8074296 184 176 168
0.63985544 -0.625896 -0.7502767 188 183 174
0.5091006 -0.60659736 -0.6897463 144 202 138
0.055683043 -0.36520496 -0.49858466 111 211 116
0.0153526515 -0.36557645 -0.47923526 119 213 124
-0.021360211 -0.36560884 -0.4616543 106 197 113
-0.054868903 -0.36534992 -0.4456387 102 192 109
-0.08520669 -0.36514905 -0.43113506 103 187 106
-0.112934075 -0.36486512 -0.41789016 101 186 102
-0.13823152 -0.36465862 -0.40580037 104 190 106
-0.16083793 -0.36525655 -0.39491254 101 190 105
-0.18766077 -0.35745424 -0.38290825 106 194 112
-0.2040765 -0.36181948 -0.37457985 52 106 39
-0.13365805 -0.5162958 -0.39170334 55 66 56
-0.15011981 -0.53476965 -0.38183755 42 51 41
-0.16324566 -0.56114787 -0.37271994 38 41 33
-0.16492662 -0.61827385 -0.36577952 58 51 41
-0.19065021 -0.61940545 -0.35334194 92 84 65
-0.21536241 -0.6189983 -0.3415539 93 88 67
-0.23845315 -0.6190677 -0.33049098 120 114 98
-0.26062816 -0.6173637 -0.32005697 183 182 182
-0.28049403 -0.6206404 -0.31019363 165 160 158
-0.2993666 -0.6246324 -0.30072898 124 114 109
-0.317552 -0.62801343 -0.291659 79 62 49
0.92850256 -0.6334381 -0.963771 167 157 151
0.79167205 -0.6328123 -0.89292973 171 165 158
0.66685736 -0.6290669 -0.8285103 184 178 169
0.5542973 -0.62325007 -0.7705701 188 185 173
0.06276405 -0.36501196 -0.5322875 39 133 37
0.021579927 -0.36570066 -0.51090974 108 204 112
-0.016702926 -0.36538556 -0.4910984 105 195 109
-0.05095352 -0.3652673 -0.47336343 105 193 112
-0.08216657 -0.36496967 -0.45721328 95 181 101
-0.109897144 -0.36535767 -0.4428238 97 184 101
-0.13568805 -0.36528173 -0.4294684 99 188 103
-0.15847743 -0.36631915 -0.4175974 92 182 99
-0.18282245 -0.3627513 -0.405212 93 186 100
-0.20373805 -0.3611771 -0.3944769 47 108 34
-0.13894035 -0.5059084 -0.41888496 61 74 62
-0.14836739 -0.53761417 -0.41199526 52 63 52
-0.1592711 -0.5700025 -0.40429744 41 46 38
-0.16783664 -0.6122888 -0.3971845 41 41 34
-0.19111556 -0.62038034 -0.38461354 92 86 67
-0.21647575 -0.6189759 -0.3715654 96 90 69
-0.23984724 -0.61895496 -0.35945985 106 102 85
-0.26232377 -0.61687756 -0.347948 216 217 226
-0.28283074 -0.6177766 -0.33726814 218 218 227
-0.30188233 -0.6211638 -0.3271847 194 189 194
-0.32012737 -0.6244641 -0.3175246 132 122 122
-0.33726212 -0.6318202 -0.30818298 97 83 77
0.95938784 -0.6320921 -1.0593698 155 145 139
0.8208132 -0.63353515 -0.9819637 171 163 157
0.6907443 -0.6299004 -0.90939784 187 182 171
0.57663655 -0.6257418 -0.8457542 189 183 174
0.07051133 -0.36501533 -0.5677902 100 191 97
0.029426422 -0.36675438 -0.5448173 108 204 109
-0.011230845 -0.36562806 -0.5221343 104 198 108
-0.04697111 -0.36510003 -0.50218636 74 164 74
-0.07871628 -0.36505803 -0.4844605 94 177 102
-0.10696262 -0.36563277 -0.46867743 95 178 101
-0.13354635 -0.36535048 -0.45383808 83 165 84
-0.15779856 -0.36516953 -0.44029886 84 166 87
-0.1803061 -0.3646799 -0.42773935 106 194 111
-0.2033299 -0.36061096 -0.41495547 67 146 67
-0.19659427 -0.4046357 -0.41793028 96 111 75
-0.1561864 -0.5218544 -0.4384003 49 59 49
-0.1615773 -0.5651678 -0.43461633 40 47 38
-0.1702093 -0.6076354 -0.4290376 57 54 42
-0.19185136 -0.62066585 -0.41671988 83 77 56
-0.21752276 -0.6192616 -0.40241003 97 92 70
-0.24145328 -0.6181734 -0.38906664 103 99 79
-0.26379758 -0.61753863 -0.37660086 202 203 208
-0.28480956 -0.61696184 -0.36487806 248 247 248
-0.30409992 -0.6198244 -0.3540552 248 248 249
-0.32243767 -0.62339336 -0.34375155 200 196 202
-0.3401666 -0.6251783 -0.33381984 136 128 126
0.8467302 -0.63199955 -1.0736463 152 142 136
0.7186075 -0.63205 -0.9967766 191 183 175
0.6002566 -0.6283093 -0.92566013 193 187 176
0.11499322 -0.387577 -0.62755394 114 207 116
0.04021048 -0.36958566 -0.5821657 103 204 107
-0.0053377743 -0.36600614 -0.5547342 103 199 105
-0.04257236 -0.36513597 -0.53236896 95 186 100
-0.075711206 -0.36460334 -0.51247084 97 185 102
-0.10476969 -0.36503425 -0.49504876 94 181 98
-0.13179754 -0.364884 -0.4788282 102 184 103
-0.15661253 -0.36460283 -0.4639315 101 189 107
-0.17896737 -0.3648891 -0.45052728 106 194 112
-0.20373458 -0.35874942 -0.43548998 107 195 117
-0.21161579 -0.3776953 -0.43130895 52 107 37
-0.16214685 -0.509721 -0.46480498 57 68 55
-0.16809921 -0.5511343 -0.46243054 49 55 46
-0.17717153 -0.5916485 -0.4581582 45 47 41
-0.19284853 -0.62028116 -0.44957975 79 73 53
-0.21851224 -0.61983633 -0.43416908 99 94 71
-0.24313161 -0.6172384 -0.41932288 104 101 77
-0.26535577 -0.6180207 -0.4060114 174 172 172
-0.28670737 -0.61680275 -0.39316562 212 213 219
-0.30660886 -0.6167442 -0.3812234 220 222 230
-0.3250808 -0.61970013 -0.3702261 223 223 230
-0.34286392 -0.6211252 -0.3595977 175 169 172
-0.3598671 -0.6212446 -0.34939957 143 134 132
0.8830969 -0.6343045 -1.1767069 160 153 144
0.74598855 -0.6331762 -1.088485 182 174 166
0.6226034 -0.6294958 -1.0088879 190 184 176
0.5097022 -0.62252486 -0.93577623 202 199 187
0.053859677 -0.37404102 -0.62360436 90 190 95
0.00298732 -0.3680081 -0.590438 102 198 105
-0.03724443 -0.36578304 -0.5644051 102 192 103
-0.07197425 -0.3646972 -0.5419966 95 184 97
-0.10282546 -0.36408305 -0.52211773 93 180 96
-0.12938458 -0.3650808 -0.50512207 97 181 98
-0.15479639 -0.3647568 -0.48876208 97 184 99
-0.17863753 -0.36363935 -0.47335055 109 195 115
-0.2030662 -0.3585208 -0.45725304 106 193 110
-0.21870014 -0.36458117 -0.4476704 55 109 42
-0.15650108 -0.52007324 -0.4996365 38 53 41
-0.17059867 -0.5458774 -0.49256316 46 54 44
-0.18115331 -0.5830066 -0.48864007 44 48 42
-0.19426002 -0.6187863 -0.48297244 64 57 44
-0.21974306 -0.6197319 -0.46666446 99 94 69
-0.24424437 -0.61859834 -0.4508274 106 104 78
-0.2669984 -0.6183237 -0.4361796 165 163 155
-0.28839782 -0.6180509 -0.42240277 186 183 181
-0.30862167 -0.6173359 -0.40934753 194 193 192
-0.32748616 -0.61842793 -0.39730537 202 199 199
-0.34533218 -0.6204238 -0.38598755 196 191 190
-0.3625963 -0.6167756 -0.3746088 168 163 160
0.77462256 -0.6341125 -1.1858206 166 160 153
0.647028 -0.63112867 -1.0977911 191 182 170
0.5349553 -0.6274126 -1.0203317 203 198 187
0.056922745 -0.37107086 -0.6594647 72 164 63
0.017331991 -0.37419415 -0.6326635 88 192 88
-0.03118837 -0.36684132 -0.59840065 115 205 118
-0.067528024 -0.36529163 -0.5732407 104 192 105
-0.0998712 -0.36404982 -0.5508651 95 184 97
-0.12766384 -0.36440545 -0.531818 95 181 97
-0.15334985 -0.36437306 -0.5141688 96 183 97
-0.17745101 -0.36352557 -0.49750513 93 184 97
-0.20148782 -0.35965058 -0.48050192 94 186 98
-0.22315387 -0.3560438 -0.46516138 55 110 41
-0.13952674 -0.55228186 -0.54747486 65 76 63
-0.16635723 -0.55534637 -0.52943194 61 70 60
-0.18370807 -0.5779029 -0.5203709 60 65 55
-0.19543202 -0.61803067 -0.51740175 44 43 32
-0.2210642 -0.61943567 -0.4999717 96 89 66
-0.24558415 -0.6192575 -0.48310512 108 105 79
-0.26861796 -0.6189462 -0.4672425 142 142 123
-0.29035908 -0.6180794 -0.45219755 174 172 163
-0.31071284 -0.6177613 -0.4381752 179 175 167
-0.32994574 -0.6170406 -0.4248718 187 183 175
-0.34799305 -0.617642 -0.41255036 187 182 177
-0.36511493 -0.6183116 -0.4008733 191 185 180
-0.38141212 -0.6158717 -0.3893687 177 170 165
0.79413474 -0.6299353 -1.2806733 160 153 145
0.668513 -0.63048595 -1.1887581 166 158 147
0.55259067 -0.62709206 -1.1032457 200 193 182
0.11373626 -0.40306756 -0.7419494 105 201 106
0.029939033 -0.378714 -0.67623883 84 185 91
-0.019425927 -0.3722986 -0.6389396 102 203 104
-0.06370595 -0.36516422 -0.60523707 102 192 102
-0.09624913 -0.36455855 -0.5812927 75 160 73
-0.12529714 -0.36435503 -0.55998 92 176 90
-0.15102105 -0.36499825 -0.5412526 87 169 86
-0.17543937 -0.36448056 -0.5232751 53 141 52
-0.20036557 -0.3600271 -0.5042253 96 187 98
-0.22440241 -0.35302788 -0.48537415 61 134 57
-0.1718824 -0.48913807 -0.5480561 69 79 64
-0.16406329 -0.5605742 -0.56649137 62 73 62
-0.1897549 -0.5641137 -0.5483029 64 72 55
-0.19794166 -0.61351234 -0.55109406 65 60 48
-0.22205958 -0.6203324 -0.5346419 98 91 68
-0.24689877 -0.62018895 -0.5164226 112 107 82
-0.27043232 -0.6188846 -0.49895316 93 91 73
-0.2923115 -0.61844915 -0.4828501 173 170 160
-0.3128824 -0.6180205 -0.46770644 177 172 163
-0.33222178 -0.61795914 -0.45353022 178 174 164
-0.35045835 -0.61837983 -0.44024742 185 180 171
-0.36778575 -0.617407 -0.42738274 189 183 174
-0.38415173 -0.61528695 -0.41501814 192 184 178
0.6928608 -0.63063455 -1.2864625 181 173 163
0.5722129 -0.6273351 -1.1916679 196 189 176
0.46944872 -0.62541133 -1.1111293 202 196 189
0.025046382 -0.37035155 -0.70592076 72 176 73
-0.013392633 -0.37285492 -0.67653877 92 199 94
-0.05659816 -0.36779028 -0.6416958 103 193 101
-0.09259685 -0.36495632 -0.6129844 98 185 96
-0.123178 -0.36392823 -0.5889122 94 182 93
-0.14920747 -0.36490005 -0.56884885 99 184 97
-0.17353016 -0.3652181 -0.5499651 99 184 97
-0.19729792 -0.36331505 -0.5310013 106 195 108
-0.22268325 -0.3550754 -0.5093151 99 182 99
-0.23365732 -0.3694405 -0.5040757 57 107 41
-0.16138837 -0.5666465 -0.6058956 75 84 72
-0.19196957 -0.55985934 -0.5804947 69 74 63
-0.20125806 -0.6067046 -0.5840619 60 63 49
-0.22329916 -0.62054366 -0.5700754 92 87 66
-0.24855296 -0.6199619 -0.5502583 113 110 86
-0.27222967 -0.6191297 -0.5316126 124 121 97
-0.2942641 -0.61914086 -0.51444143 173 172 161
-0.31519723 -0.6175969 -0.49776986 216 211 214
-0.33457914 -0.61870503 -0.48291916 174 171 161
-0.35304794 -0.61813736 -0.46839356 183 178 169
-0.370449 -0.6186361 -0.45494613 188 182 173
-0.38696012 -0.61949533 -0.44227543 191 183 175
-0.40292057 -0.6282156 -0.43184748 190 185 174
0.70369595 -0.6232435 -1.3757259 174 169 157
0.59220594 -0.6271477 -1.2845421 191 184 174
0.48499525 -0.62497944 -1.1951692 201 195 186
0.38583052 -0.61905813 -1.1113869 219 214 205
-0.01497698 -0.3672241 -0.7077616 102 197 104
-0.05273314 -0.3673521 -0.67654157 95 191 96
-0.088157654 -0.36597368 -0.64682233 108 195 104
-0.11900345 -0.36562562 -0.6211873 105 190 101
-0.14722018 -0.3649238 -0.5976279 89 172 85
-0.1709645 -0.36676392 -0.5784959 108 193 105
-0.19401222 -0.36685094 -0.5594407 110 196 108
-0.22052301 -0.35783023 -0.53492117 104 189 105
-0.23387907 -0.3685723 -0.52692765 59 108 43
-0.13993493 -0.6138071 -0.6746339 120 120 99
-0.193224 -0.5580252 -0.61461097 72 81 67
-0.21013233 -0.58382946 -0.6079721 68 73 60
-0.22503936 -0.619191 -0.6057155 102 95 74
-0.25029758 -0.619543 -0.58490586 115 112 90
-0.27431417 -0.6182242 -0.56464756 121 117 98
-0.2965506 -0.61815673 -0.5462198 171 168 158
-0.31745648 -0.61803985 -0.5288796 181 178 167
-0.33708814 -0.61849046 -0.512756 186 180 171
-0.35573342 -0.6172138 -0.4969564 188 182 175
-0.37321547 -0.61858726 -0.48287556 112 106 101
-0.3898409 -0.61948246 -0.46936744 191 183 175
-0.405756 -0.62314713 -0.45723718 193 188 179
0.6094529 -0.62478507 -1.3787271 130 122 110
0.5024015 -0.62515163 -1.2848746 202 194 186
0.40966365 -0.62617743 -1.2038126 210 202 196
0.31992713 -0.621188 -1.1233317 210 205 198
0.24815981 -0.6225315 -1.0607877 206 211 196
